# .PCD v0.7 - Point Cloud Data file format
VERSION 0.7
FIELDS x y z
SIZE 4 4 4
TYPE F F F
COUNT 1 1 1
WIDTH 1512
HEIGHT 1
VIEWPOINT 0 0 0 1 0 0 0
POINTS 1512
DATA ascii
8.2482853 -6.7501059 -2.3922772
8.358119 -6.7716517 -2.4144478
8.3608541 -6.7060494 -2.4056845
8.3633308 -6.6407318 -2.3969741
8.3655586 -6.5757008 -2.3883181
8.4773626 -6.5964127 -2.410949
8.4790878 -6.5310822 -2.4022787
8.4805756 -6.4660473 -2.3936648
8.5947371 -6.4865193 -2.4168568
8.5957432 -6.4211926 -2.4082332
8.5965261 -6.3561683 -2.3996682
8.5970936 -6.2914495 -2.3911633
8.7135057 -6.3110948 -2.4148824
8.7136192 -6.2460952 -2.406374
8.7135315 -6.1814075 -2.3979282
8.7132502 -6.1170349 -2.3895457
8.832077 -6.1358547 -2.4138308
8.8313751 -6.0712118 -2.4054523
8.8457756 -6.0172839 -2.4012876
8.8446512 -5.9531255 -2.3930082
8.8433609 -5.8892894 -2.3847961
8.9647179 -5.9066939 -2.4096622
8.963048 -5.8426003 -2.401463
8.9764118 -5.7886281 -2.3973899
8.9743633 -5.7250338 -2.3892963
1.9062592 -1.2029189 -0.5059337
1.9057574 -1.1895422 -0.50424224
1.9375178 -1.1961699 -0.51108348
1.9608475 -1.1972985 -0.51567847
1.960233 -1.1837322 -0.51398009
1.9622378 -1.1718165 -0.51298892
1.9777458 -1.167925 -0.51553589
2.0034733 -1.1698714 -0.52073669
2.0298784 -1.1719457 -0.52609581
2.0462244 -1.1680074 -0.52883756
2.132386 -1.2033286 -0.54957008
2.1315 -1.1890503 -0.54782844
2.1339509 -1.1766988 -0.54696488
2.1471031 -1.1702224 -0.54885459
2.1773407 -1.1728551 -0.55510348
2.2069342 -1.1748344 -0.56116885
2.3055365 -1.2128148 -0.58471769
2.3252194 -1.2086111 -0.58819544
2.3538394 -1.2088256 -0.5939247
2.3704174 -1.2026488 -0.59660858
2.3817406 -1.1937063 -0.59797406
2.3986776 -1.1874759 -0.60075343
2.4083416 -1.1775534 -0.60171646
2.4367099 -1.1766156 -0.6073516
2.4588356 -1.1724273 -0.6114223
2.5747771 -1.2122103 -0.63876301
2.6168075 -1.2163174 -0.64769876
2.6337647 -1.2084888 -0.65041745
2.6532564 -1.201677 -0.65376413
2.6640282 -1.1908064 -0.65496784
2.6839657 -1.1839207 -0.65843046
2.7000115 -1.1751757 -0.66094154
2.7477491 -1.1799192 -0.67119914
2.8600588 -1.2115273 -0.6971699
2.9071336 -1.2146457 -0.70718062
2.9213178 -1.2037369 -0.70918286
2.9355652 -1.1927588 -0.71120936
2.9561689 -1.1842307 -0.71478188
2.9706514 -1.1731167 -0.71688038
3.0247829 -1.1773363 -0.72853786
3.1510541 -1.2086798 -0.75751066
3.195292 -1.2076615 -0.76670873
3.2111185 -1.1956341 -0.76908654
3.23722 -1.1872637 -0.77393067
3.2558103 -1.1759542 -0.77698344
3.2907598 -1.1703204 -0.78394139
3.4638565 -1.2127297 -0.82374698
3.4812341 -1.1996336 -0.82646704
3.5104761 -1.1904343 -0.83200973
3.5282199 -1.1771426 -0.83483344
3.5647538 -1.1698866 -0.84210676
3.7493396 -1.2100782 -0.88429564
3.7684727 -1.1958283 -0.88741088
3.8013117 -1.1857101 -0.89376038
3.8364892 -1.1760173 -0.90066099
4.0067053 -1.2066768 -0.93921709
4.050086 -1.1980556 -0.94799387
4.0711417 -1.1825488 -0.95155001
4.1497025 -1.1832767 -0.96854055
4.311461 -1.206513 -1.0048984
4.3341441 -1.1899147 -1.0088094
4.3931022 -1.1829062 -1.0211666
4.585794 -1.2106426 -1.0645609
4.6102242 -1.1928779 -1.0688579
4.6668038 -1.1830685 -1.0806139
4.8682809 -1.2087032 -1.1258769
4.8945394 -1.1897067 -1.1305832
4.9763141 -1.1837032 -1.1481143
5.1580019 -1.2001581 -1.1886568
5.1862025 -1.1798724 -1.1938044
5.433814 -1.2081381 -1.2494195
5.4639311 -1.1866739 -1.2549876
5.5239315 -1.1712962 -1.2674309
5.7533116 -1.1904072 -1.3187019
5.9871006 -1.2081157 -1.37091
6.020895 -1.1841587 -1.3772985
6.0840101 -1.1655331 -1.3904086
6.337348 -1.1817956 -1.4469599
6.5676122 -1.1913538 -1.4981788
6.619029 -1.1670977 -1.5085808
6.0032387 -1.0281128 -1.367064
6.0045729 -0.99797982 -1.3662339
6.0058393 -0.96787202 -1.3654228
6.003633 -0.93725729 -1.3638572
6.0048451 -0.90722752 -1.3631028
6.0059896 -0.87722075 -1.3623672
6.0070696 -0.84723657 -1.3616507
6.0001192 -0.81619108 -1.3591493
6.0011439 -0.78630024 -1.3584894
6.0021038 -0.75642961 -1.3578484
6.0003352 -0.72625637 -1.356624
6.0012512 -0.69644791 -1.3560406
6.0021043 -0.66665739 -1.3554764
6.0028949 -0.63688439 -1.3549314
6.0013781 -0.60690141 -1.3538991
6.0021286 -0.57718104 -1.353412
6.0028186 -0.54747593 -1.3529443
6.0034466 -0.51778537 -1.3524958
6.0022831 -0.48796806 -1.3516768
6.0151 -0.45925349 -1.3540382
6.003839 -0.42871514 -1.3510125
6.0037913 -0.3990542 -1.350544
6.0028138 -0.36935595 -1.3498993
6.003253 -0.33976543 -1.3496062
6.0036335 -0.31018403 -1.3493326
6.0029111 -0.28056234 -1.3488437
6.0032601 -0.25100619 -1.3486286
6.0035505 -0.22145657 -1.348433
6.0037827 -0.19191295 -1.3482569
6.0033464 -0.16235827 -1.3479635
6.0035496 -0.1328299 -1.347846
6.0036936 -0.10330494 -1.3477482
6.0037804 -0.073782846 -1.3476698
6.0036345 -0.04426175 -1.347572
6.0036926 -0.01474473 -1.3475524
6.0036917 0.014772002 -1.3475523
6.0036335 0.044289015 -1.3475718
6.0037789 0.073810115 -1.3476696
6.0036926 0.1033322 -1.3477479
6.005724 0.13290532 -1.3483344
9.903944 0.26789352 -2.2237856
7.4230208 0.23731317 -1.6669725
6.7367578 0.24853349 -1.513116
6.3601894 0.26595894 -1.4288127
6.341805 0.29643035 -1.4249929
6.3425684 0.32772434 -1.4255093
6.3421664 0.35897577 -1.4257984
6.341702 0.39023682 -1.4261081
6.3427348 0.42161173 -1.4267893
6.3422356 0.45290792 -1.4271606
6.3416729 0.48421636 -1.4275525
6.3410473 0.51553762 -1.4279649
6.3599811 0.54856485 -1.4328188
6.3526063 0.5794068 -1.4317816
6.3409472 0.60979187 -1.4298124
6.3401537 0.64118981 -1.4303271
6.3417563 0.67286545 -1.4314176
6.3409209 0.70431912 -1.4319932
6.3400197 0.73579133 -1.4325894
6.3390517 0.76728249 -1.4332057
6.3409204 0.79915911 -1.4344991
6.3399057 0.83071584 -1.4351763
6.3388233 0.86229402 -1.4358735
6.2376037 0.87977999 -1.4139079
6.2364831 0.91091502 -1.414652
6.2352934 0.94207329 -1.4154156
6.2340355 0.97325552 -1.4161992
6.2363257 1.0050452 -1.4178249
6.2457089 1.0380867 -1.4211013
6.9204988 1.1852349 -1.5759447
6.6190233 1.1671277 -1.5085807
6.5676064 1.1913836 -1.4981788
6.3373427 1.1818243 -1.4469599
6.0840039 1.1655607 -1.3904085
6.0208888 1.184186 -1.3772984
5.9870954 1.208143 -1.37091
5.7533059 1.1904331 -1.3187017
5.5239077 1.1713173 -1.2674266
5.4638863 1.1866901 -1.2549785
5.4338078 1.2081627 -1.2494192
5.1861968 1.1798959 -1.1938043
5.1579962 1.2001816 -1.1886567
4.9763079 1.1837256 -1.1481141
4.8945332 1.1897287 -1.130583
4.8682756 1.2087255 -1.125877
4.6667986 1.1830897 -1.0806139
4.610219 1.1928989 -1.0688579
4.5857887 1.2106636 -1.0645609
4.3930974 1.1829264 -1.0211667
4.3341389 1.1899346 -1.0088094
4.3114557 1.2065327 -1.0048984
4.1496749 1.1832892 -0.9685353
4.0711002 1.1825567 -0.95154154
4.0500455 1.1980637 -0.94798559
4.0066996 1.2066952 -0.93921709
3.8364835 1.1760346 -0.90066087
3.8013062 1.1857272 -0.89376032
3.7684667 1.1958452 -0.88741076
3.7493336 1.2100952 -0.88429552
3.5647485 1.1699029 -0.84210676
3.528214 1.1771585 -0.83483326
3.5104702 1.1904502 -0.83200961
3.4812284 1.1996493 -0.82646692
3.4638505 1.2127455 -0.82374692
3.2907543 1.1703353 -0.78394133
3.2558048 1.1759689 -0.77698338
3.2372141 1.1872783 -0.77393055
3.2111125 1.1956486 -0.76908642
3.1952863 1.2076761 -0.76670867
3.1510484 1.2086941 -0.7575106
3.0247774 1.17735 -0.7285378
2.9706459 1.1731302 -0.71688032
2.9561632 1.184244 -0.71478182
2.9355595 1.1927719 -0.7112093
2.9213119 1.2037501 -0.70918274
2.9071271 1.2146587 -0.70718044
2.8600533 1.2115403 -0.69716984
2.7477431 1.1799315 -0.67119902
2.700006 1.1751879 -0.66094148
2.6839597 1.1839328 -0.6584304
2.6640227 1.1908184 -0.65496773
2.6532507 1.2016889 -0.65376401
2.6337588 1.2085006 -0.65041733
2.6168017 1.2163291 -0.6476987
2.5747714 1.2122219 -0.63876295
2.4588299 1.1724384 -0.61142224
2.4367044 1.1766267 -0.60735154
2.4083359 1.1775644 -0.6017164
2.3986721 1.1874869 -0.60075343
2.3817348 1.193717 -0.59797406
2.3704116 1.2026594 -0.59660846
2.3538334 1.2088361 -0.59392458
2.3252132 1.2086215 -0.58819532
2.305531 1.2128252 -0.58471769
2.2069287 1.1748443 -0.56116879
2.1773353 1.1728649 -0.55510348
2.1470973 1.1702321 -0.54885453
2.1339455 1.1767083 -0.54696482
2.1314945 1.1890599 -0.54782838
2.1323805 1.2033383 -0.54957002
2.0462189 1.1680166 -0.5288375
2.0298727 1.1719548 -0.52609575
2.0034678 1.1698804 -0.52073658
1.9777403 1.1679339 -0.51553583
1.9622324 1.1718253 -0.51298887
1.9602275 1.1837409 -0.51398003
1.9608419 1.1973072 -0.51567841
1.9375603 1.1962082 -0.51109612
1.9057516 1.1895505 -0.50424212
1.9062536 1.2029274 -0.50593364
8.9743357 5.7250738 -2.3892961
8.9763851 5.7886691 -2.3973899
8.9630203 5.8426409 -2.401463
8.9646912 5.9067345 -2.4096622
8.8433332 5.889329 -2.3847959
8.8446236 5.9531641 -2.393008
8.845747 6.0173235 -2.4012873
8.8313475 6.0712514 -2.405452
8.8320484 6.1358943 -2.4138305
8.7132225 6.1170745 -2.3895454
8.7135029 6.1814461 -2.397928
8.7135897 6.2461338 -2.4063737
8.7134762 6.3111339 -2.4148822
8.597064 6.2914886 -2.3911631
8.5964975 6.3562069 -2.3996682
8.5957136 6.4212313 -2.4082329
8.5947075 6.486558 -2.4168568
8.480546 6.4660864 -2.3936648
8.4790573 6.5311208 -2.4022787
8.4773321 6.5964513 -2.410949
8.36553 6.5757394 -2.3883183
8.3633022 6.64077 -2.3969743
8.3608236 6.7060881 -2.4056845
8.3580894 6.7716899 -2.4144478
8.2482538 6.7501421 -2.392277
8.2449923 6.8154316 -2.4010205
8.2414627 6.8809972 -2.4098153
8.1337357 6.8591986 -2.3881476
8.1446009 6.9371657 -2.4013226
8.1402674 7.0028214 -2.4101667
8.0343485 6.9807281 -2.3889391
8.0294552 7.046052 -2.3977556
8.0242682 7.1116333 -2.4066186
7.934885 7.1023746 -2.3902547
7.9291363 7.1677551 -2.3991096
7.9230804 7.2333817 -2.4080081
7.8351617 7.2240629 -2.3920531
7.8285236 7.2894754 -2.4009392
7.8215671 7.3551226 -2.4098666
7.7350092 7.345717 -2.3942959
7.7274537 7.4111362 -2.4032066
7.7195673 7.4767804 -2.4121568
7.6342697 7.4672575 -2.3969467
7.6257701 7.53266 -2.4058766
7.5419283 7.523458 -2.3910658
7.579597 7.6357484 -2.4148808
7.499999 7.6302261 -2.4014437
7.4347057 7.6385584 -2.3925331
7.4439993 7.7237196 -2.4077146
7.3784661 7.7314396 -2.3987842
7.299602 7.7244849 -2.3854628
7.3223376 7.8252559 -2.4054358
7.2568054 7.8320518 -2.396529
7.2663531 7.9201064 -2.4125123
7.200604 7.9263182 -2.4035919
7.1350989 7.9322205 -2.3947148
7.1578007 8.0365753 -2.4155664
7.078876 8.0270748 -2.4022205
7.013422 8.0321131 -2.3933804
7.0358119 8.1381693 -2.4146464
6.9700241 8.1426468 -2.4057782
6.8918505 8.1319122 -2.3925664
6.8267379 8.1358433 -2.3838196
6.8482432 8.2434425 -2.405452
6.782814 8.2468367 -2.3966825
6.7176628 8.2499647 -2.3879645
6.738915 8.3596716 -2.4101
6.6734533 8.362277 -2.4013631
6.6082768 8.3646278 -2.3926797
6.6292858 8.4765635 -2.4153461
6.563808 8.4784098 -2.4066479
6.4986234 8.4800158 -2.3980055
6.4337363 8.4813881 -2.38942
6.4539146 8.5954275 -2.4125793
6.3887377 8.5963211 -2.4039848
6.3238649 8.5969954 -2.3954496
6.2592988 8.5974569 -2.3869746
6.2786508 8.7137518 -2.4106627
6.2138062 8.7137642 -2.4021854
6.1492753 8.7135792 -2.3937712
6.0850582 8.7132015 -2.3854201
6.1035867 8.8319159 -2.4096761
6.0495763 8.8464403 -2.4054947
5.9852543 8.8454018 -2.397182
5.9212575 8.8441944 -2.3889363
5.9389558 8.9656668 -2.4138315
5.8746963 8.9640732 -2.4055972
5.8107657 8.962327 -2.397433
5.7568779 8.9755764 -2.3933773
5.6934476 8.9734583 -2.3853195
5.709712 9.0976601 -2.4108436
5.6460304 9.0951996 -2.4028068
5.5919437 9.1076975 -2.3988163
5.5287728 9.1048994 -2.3908911
5.4659386 9.1019907 -2.3830419
5.4897041 9.2442379 -2.4131887
5.4264636 9.2409296 -2.4053316
5.3635645 9.2375269 -2.3975532
5.3010063 9.2340364 -2.389854
5.2471437 9.2451859 -2.386034
5.2604299 9.3756762 -2.4130075
5.1978097 9.3717432 -2.4053895
5.1435804 9.3824263 -2.4016116
5.0814877 9.3782511 -2.394119
5.0275064 9.3885307 -2.3904042
4.9659381 9.3841276 -2.3830385
4.9770603 9.5180435 -2.4108024
4.9227071 9.5278854 -2.407136
4.8610859 9.5231371 -2.3998694
4.8069854 9.5325994 -2.3962693
4.745892 9.5276718 -2.3891363
4.6851411 9.5227356 -2.3820937
4.7008786 9.674511 -2.4142494
4.6397276 9.6693077 -2.4072294
4.5855041 9.6780109 -2.4037545
4.5248809 9.6726761 -2.3968751
4.470912 9.681036 -2.393471
4.4108124 9.6755905 -2.3867345
4.3570986 9.6836205 -2.3834021
4.3629413 9.8254166 -2.4129934
4.3086572 9.8332243 -2.4096792
4.2486725 9.8274832 -2.4031248
4.194643 9.8349771 -2.3998852
4.1351762 9.8291836 -2.3934815
4.0813994 9.8363752 -2.3903177
4.0224433 9.8305454 -2.3840663
4.0303321 9.9896708 -2.4178221
3.9709594 9.9836931 -2.4116211
3.9168496 9.9903984 -2.40856
3.8579812 9.9844208 -2.4025171
3.8041213 9.9908552 -2.3995359
3.7503321 9.9971113 -2.3965812
3.6921353 9.9910698 -2.3907526
3.6385918 9.9970713 -2.3878787
3.5808816 9.9910774 -2.3822131
3.5830636 10.154069 -2.4168468
3.5249174 10.148009 -2.4112501
3.4710107 10.153596 -2.4084938
3.4171743 10.159019 -2.4057655
3.3596694 10.152978 -2.4003944
3.3060689 10.158176 -2.3977518
3.2490263 10.152244 -2.3925519
3.1956556 10.157228 -2.3899951
3.1423526 10.162057 -2.3874674
3.0859182 10.156202 -2.3824985
3.0813453 10.323341 -2.418124
3.0274787 10.327874 -2.4156699
2.9707289 10.322004 -2.4108517
2.9170823 10.326348 -2.4084876
2.860759 10.320652 -2.4038496
2.8073261 10.324819 -2.401576
2.7539566 10.328839 -2.399333
2.6981912 10.32331 -2.394938
2.6450264 10.327165 -2.3927865
2.5919225 10.330879 -2.3906655
2.53669 10.325544 -2.3865163
2.4837823 10.329105 -2.3844881
2.4309323 10.33253 -2.3824909
2.4148588 10.495407 -2.4172807
2.3613353 10.49873 -2.4153428
2.3078685 10.50192 -2.4134371
2.2527349 10.496953 -2.4097211
2.1994472 10.50001 -2.4079115
2.1462128 10.502937 -2.4061339
2.0930307 10.505735 -2.4043887
2.0384738 10.501056 -2.4009948
1.9854579 10.503736 -2.3993468
1.9324909 10.506291 -2.3977313
1.8783567 10.501924 -2.394598
1.8255446 10.504371 -2.3930805
1.772778 10.506696 -2.3915956
1.7190354 10.502662 -2.3887246
1.6664118 10.504887 -2.3873386
1.6138303 10.506995 -2.3859856
1.5612898 10.508986 -2.3846657
1.5079962 10.505331 -2.3821254
1.4555835 10.507233 -2.3809049
1.4264312 10.682944 -2.4191024
1.372577 10.679595 -2.4167867
1.3194509 10.681322 -2.4156802
1.2663586 10.682934 -2.4146075
1.2132995 10.684433 -2.413569
1.1598064 10.681525 -2.4115949
1.1068481 10.682953 -2.4106593
1.0539186 10.684268 -2.4097579
1.0006713 10.681781 -2.4080582
0.94782883 10.683028 -2.4072597
0.89501125 10.684169 -2.406496
0.84221733 10.6852 -2.4057667
0.78922957 10.683191 -2.4044116
0.73650539 10.684161 -2.4037859
0.68380052 10.685025 -2.4031949
0.63111424 10.685783 -2.4026387
0.57832795 10.684269 -2.4016297
0.52569377 10.684971 -2.4011774
0.47307336 10.685567 -2.4007597
0.42046592 10.686059 -2.4003766
0.36782241 10.685051 -2.3997152
0.31524929 10.68549 -2.3994365
0.26268452 10.685824 -2.3991928
0.21012717 10.686057 -2.398984
0.15756701 10.685564 -2.3986704
0.10502591 10.685743 -2.3985658
0.052487634 10.685821 -2.3984964
-4.8873233e-05 10.685794 -2.3984613
-4.9295079e-07 -11.2774 -2.38221
0.055444635 -11.277428 -2.3822448
0.11089166 -11.277349 -2.3823142
0.16634166 -11.277161 -2.3824186
0.22181194 -11.277688 -2.3827317
0.27727923 -11.277448 -2.3829401
0.33275446 -11.277101 -2.3831835
0.38823858 -11.276644 -2.3834617
0.44379735 -11.277721 -2.3841217
0.49931794 -11.277211 -2.3845038
0.55485225 -11.27659 -2.3849208
0.61040145 -11.275862 -2.3853724
0.66611189 -11.277482 -2.3863792
0.72171646 -11.276695 -2.3869345
0.77734065 -11.275796 -2.3875246
0.83298552 -11.274787 -2.388149
0.88891 -11.276937 -2.3895013
0.94462901 -11.275866 -2.3902295
1.0003732 -11.274678 -2.3909914
1.056144 -11.27338 -2.3917885
1.1123441 -11.276044 -2.3934848
1.1682074 -11.274675 -2.3943844
1.2241014 -11.27319 -2.3953185
1.2805629 -11.276305 -2.3972893
1.3365639 -11.274746 -2.3983254
1.3926004 -11.273068 -2.3993959
1.4486732 -11.271272 -2.4005005
1.5055178 -11.274858 -2.4028115
1.561715 -11.272975 -2.4040179
1.6179531 -11.270973 -2.4052579
1.6751423 -11.274971 -2.4078398
1.7315185 -11.272876 -2.4091811
1.7879394 -11.270655 -2.4105561
1.8444061 -11.26831 -2.4119647
1.9020815 -11.272724 -2.4148822
1.9587029 -11.270273 -2.4163909
2.0153744 -11.267697 -2.4179337
2.0734732 -11.272477 -2.4211175
2.0935502 -11.075305 -2.3809509
2.1494579 -11.072515 -2.3825941
2.2069991 -11.077524 -2.385978
2.2630835 -11.074612 -2.3877182
2.3192239 -11.071565 -2.3894906
2.3754206 -11.068381 -2.3912952
2.4335732 -11.073699 -2.3950002
2.4899607 -11.070377 -2.3969004
2.5464082 -11.066916 -2.3988326
2.6050799 -11.072509 -2.402792
2.6617291 -11.068898 -2.4048193
2.7184408 -11.065141 -2.4068775
2.7776601 -11.070978 -2.4110887
2.834585 -11.067062 -2.4132419
2.8915749 -11.062994 -2.4154253
2.9513702 -11.069046 -2.4198859
2.9575844 -10.877246 -2.3811049
3.0138898 -10.872906 -2.3833697
3.0732551 -10.879005 -2.3879898
3.129787 -10.874477 -2.3903449
3.189604 -10.880763 -2.3951445
3.2463703 -10.87604 -2.3975892
3.3032069 -10.871154 -2.4000633
3.3636582 -10.877563 -2.4050999
3.4207368 -10.872464 -2.4076622
3.4778883 -10.867201 -2.410254
3.5389962 -10.873697 -2.4155247
3.5963974 -10.868208 -2.4182038
3.5970721 -10.693681 -2.3832774
3.6537614 -10.68803 -2.3859925
3.7105246 -10.682203 -2.3887358
3.7717724 -10.688699 -2.3943057
3.8287921 -10.682624 -2.3971326
3.8905542 -10.68919 -2.4028692
3.9478338 -10.682853 -2.4057786
4.0101199 -10.68947 -2.4116797
4.0676641 -10.682858 -2.4146709
4.1252866 -10.676061 -2.4176896
4.1197238 -10.507714 -2.3841238
4.1766596 -10.500722 -2.3871675
4.2391572 -10.507133 -2.3933339
4.296361 -10.499843 -2.396456
4.3593998 -10.506236 -2.4027779
4.4168744 -10.498638 -2.4059777
4.480464 -10.504995 -2.4124537
4.5382104 -10.497075 -2.4157295
4.5282745 -10.334308 -2.3833656
4.5853539 -10.326167 -2.3866587
4.6490011 -10.332247 -2.3933177
4.7063532 -10.323766 -2.3966842
4.7705588 -10.329749 -2.4034891
4.8281846 -10.320916 -2.4069276
4.8929529 -10.32678 -2.4138765
4.9508538 -10.317582 -2.4173868
4.9367747 -10.159874 -2.3860939
4.9940195 -10.150428 -2.3896129
5.0588632 -10.155866 -2.3967195
5.124074 -10.161295 -2.4039168
5.1817884 -10.151297 -2.4075496
5.2475657 -10.156535 -2.4148815
5.2229385 -9.9881468 -2.3809211
5.2882309 -9.9930553 -2.3882596
5.353889 -9.99792 -2.3956842
5.4114232 -9.9870625 -2.3994286
5.4776464 -9.9916887 -2.4069812
5.5354457 -9.980401 -2.410789
5.516396 -9.8317804 -2.3814116
5.5824995 -9.8359613 -2.3890433
5.6398554 -9.8241882 -2.3928897
5.7065158 -9.8280802 -2.4006424
5.773541 -9.8318796 -2.4084749
5.8409333 -9.8355789 -2.4163866
5.8099632 -9.6747684 -2.3838677
5.8768611 -9.6780396 -2.3917642
5.944118 -9.6811905 -2.3997364
6.0016656 -9.6679964 -2.4037507
6.0694695 -9.6707888 -2.411835
6.0465012 -9.5298119 -2.3840613
6.1139789 -9.532239 -2.3921595
6.1712666 -9.5182562 -2.3962355
6.2392783 -9.5202875 -2.4044404
6.3076429 -9.5221567 -2.4127154
6.2831244 -9.3845987 -2.3856597
6.3511515 -9.3860569 -2.393939
6.4195247 -9.3873329 -2.4022853
6.4768982 -9.3720083 -2.4064837
6.5457883 -9.3728313 -2.4149292
6.519743 -9.2384462 -2.3885345
6.5882845 -9.2388144 -2.3969753
6.6571603 -9.2389727 -2.405479
6.7263708 -9.2389154 -2.4140449
6.6994824 -9.107543 -2.3882959
6.7683349 -9.1069984 -2.3968503
6.8375111 -9.1062212 -2.4054642
6.9070101 -9.1052036 -2.4141364
6.8792787 -8.9766455 -2.3889892
6.9484081 -8.975111 -2.3976433
7.0178523 -8.9733229 -2.406354
7.0876098 -8.9712744 -2.4151201
7.0590305 -8.8453484 -2.3905342
7.1284046 -8.8427553 -2.3992758
7.198082 -8.8398867 -2.4080706
7.1693382 -8.7167082 -2.3840885
7.2386284 -8.7132807 -2.3928559
7.3082108 -8.7095642 -2.4016736
7.3780828 -8.7055531 -2.4105411
7.362061 -8.6005611 -2.3914623
7.4316845 -8.5959873 -2.4003215
7.5015874 -8.5911055 -2.4092276
7.4717517 -8.4724979 -2.3862388
7.5552616 -8.4827557 -2.3995607
7.6251702 -8.476965 -2.4084983
7.5950832 -8.3604794 -2.3859828
7.6645713 -8.3540764 -2.3948805
7.7487521 -8.3629189 -2.4083076
7.7183924 -8.2484388 -2.3862391
7.7878528 -8.2410803 -2.3951583
7.872251 -8.2487717 -2.4086132
7.8416004 -8.1361876 -2.3869674
7.9258065 -8.1430511 -2.4003842
7.9955859 -8.1343451 -2.4093764
7.9795275 -8.0385685 -2.3925989
8.0338268 -8.01408 -2.3970373
8.0279922 -7.9298983 -2.3836348
8.1386328 -7.9605145 -2.4048362
8.1319513 -7.8761244 -2.3913913
8.2446737 -7.9071131 -2.4130785
8.2525549 -7.8371444 -2.4040787
8.244688 -7.7529411 -2.3906543
8.3593063 -7.783639 -2.4127638
8.366209 -7.7136216 -2.4037812
8.3572016 -7.6296434 -2.3903863
8.4738255 -7.6600714 -2.4129429
8.4797783 -7.5900302 -2.4039831
8.4696751 -7.5063128 -2.3906276
8.5884228 -7.5364909 -2.4136574
8.593462 -7.4664512 -2.4047279
8.5981884 -7.3966885 -2.3958454
8.6026087 -7.3272071 -2.3870106
8.707468 -7.3429613 -2.40606
8.7113304 -7.2732348 -2.3972175
8.714901 -7.2037983 -2.3884251
8.8382158 -7.2328839 -2.412446
8.8412228 -7.1630569 -2.403625
8.8439531 -7.0935321 -2.3948569
8.8464108 -7.0243111 -2.3861418
8.9721947 -7.0525441 -2.4106879
8.9741125 -6.9829445 -2.4019499
8.9757729 -6.9136581 -2.3932676
8.9771814 -6.8446865 -2.3846416
9.1056013 -6.8720727 -2.4097505
9.1064978 -6.8027363 -2.4011075
9.1071577 -6.7337227 -2.3925235
9.1075878 -6.6650352 -2.3839991
9.2388248 -6.6915774 -2.4097106
9.2387733 -6.6225357 -2.401176
9.2385082 -6.5538278 -2.3927038
9.2380371 -6.4854555 -2.384295
9.3722916 -6.5111551 -2.4106543
9.3713732 -6.4424376 -2.4022417
9.3865662 -6.3851533 -2.3980603
9.3851986 -6.3169546 -2.3897476
9.522871 -6.3418131 -2.4168348
9.5210867 -6.2732749 -2.4085252
9.5191355 -6.2050886 -2.4002852
9.5332403 -6.1477113 -2.3961916
9.5308876 -6.0800586 -2.3880579
1.9062912 -1.2029392 -0.47615248
1.9057542 -1.1895401 -0.4745518
1.9557177 -1.207406 -0.48550916
1.9607902 -1.1972635 -0.48530126
1.9601395 -1.1836758 -0.48369405
1.9621848 -1.1717849 -0.48277125
1.9776747 -1.1678832 -0.48516384
2.003365 -1.1698083 -0.4900493
2.0297315 -1.1718609 -0.4950836
2.0460572 -1.167912 -0.49765915
2.1337237 -1.2040836 -0.51753604
2.1313345 -1.1889579 -0.51553243
2.1337664 -1.176597 -0.51471525
2.1468787 -1.1701002 -0.51648426
2.1770747 -1.1727118 -0.52235532
2.2066448 -1.1746802 -0.52805805
2.3068991 -1.2135315 -0.55061489
2.3249493 -1.2084707 -0.55349833
2.3535244 -1.2086639 -0.55887979
2.370059 -1.202467 -0.56139553
2.3813601 -1.1935154 -0.5626756
2.3982525 -1.1872655 -0.56528103
2.409699 -1.1782172 -0.56660682
2.4380522 -1.1772637 -0.57190579
2.4584208 -1.1722295 -0.57532489
2.5742991 -1.2119852 -0.60104126
2.6162777 -1.2160711 -0.60943902
2.6332097 -1.2082341 -0.611992
2.652653 -1.2014036 -0.61513066
2.6654322 -1.1914339 -0.61672831
2.6853466 -1.18453 -0.61998111
2.6994283 -1.1749219 -0.62189108
2.7471111 -1.1796453 -0.63153243
2.8593724 -1.2112366 -0.65596318
2.9063888 -1.2143346 -0.66537154
2.9205465 -1.2034191 -0.6672501
2.934767 -1.1924344 -0.66915154
2.9576132 -1.1848093 -0.67302436
2.9720852 -1.1736829 -0.67499632
3.0262082 -1.177891 -0.68596482
3.1501954 -1.2083504 -0.71271431
3.1943734 -1.2073144 -0.7213577
3.2101712 -1.1952814 -0.72358936
3.2362173 -1.186896 -0.72813618
3.2547779 -1.1755813 -0.73100299
3.292279 -1.1708608 -0.73812377
3.4654179 -1.2132764 -0.77559441
3.4827847 -1.2001679 -0.77815133
3.5120025 -1.1909519 -0.78336167
3.5297358 -1.1776483 -0.78601623
3.5635905 -1.1695048 -0.79226518
3.7480657 -1.2096671 -0.83194578
3.7671669 -1.1954139 -0.83487099
3.7999442 -1.1852834 -0.84083343
3.8350842 -1.1755866 -0.84731984
4.0052118 -1.2062271 -0.8835867
4.0517707 -1.1985539 -0.89254725
4.0728154 -1.1830349 -0.89589107
4.1513715 -1.1837524 -0.91187972
4.3131757 -1.2069929 -0.94610637
4.3358479 -1.1903825 -0.94978428
4.3947902 -1.1833607 -0.96140981
4.5840292 -1.2101767 -1.0014943
4.6084237 -1.1924119 -1.0055308
4.6649289 -1.1825931 -1.016579
4.8662968 -1.2082106 -1.0591538
4.8925185 -1.1892154 -1.0635755
4.9742064 -1.1832018 -1.080056
5.1599841 -1.2006193 -1.1190989
5.1881752 -1.1803212 -1.1239408
5.4358406 -1.2085886 -1.1762924
5.4659481 -1.187112 -1.1815302
5.5259504 -1.1717243 -1.1932409
5.7553735 -1.1908337 -1.2415018
5.9892254 -1.2085444 -1.2906491
6.0230112 -1.184575 -1.2966591
6.0861278 -1.1659387 -1.3089973
6.3395133 -1.1821994 -1.3622285
6.5647268 -1.1908303 -1.4093472
6.6160941 -1.1665802 -1.4191265
6.0037999 -1.028209 -1.2866919
6.0051103 -0.99806911 -1.2859055
6.0063529 -0.96795475 -1.2851371
6.0041046 -0.9373309 -1.2836546
6.0052953 -0.90729553 -1.2829398
6.0064192 -0.87728345 -1.282243
6.0074778 -0.84729415 -1.2815642
6.005456 -0.816917 -1.2802607
6.0064678 -0.78699774 -1.279636
6.0074153 -0.75709903 -1.2790294
6.0056186 -0.72689581 -1.2778705
6.0065227 -0.69705963 -1.2773182
6.0073643 -0.66724163 -1.2767842
6.0081439 -0.63744128 -1.2762684
6.0066037 -0.60742986 -1.2752914
6.0073447 -0.57768261 -1.2748303
6.0080247 -0.54795074 -1.2743876
6.0086417 -0.51823342 -1.2739626
6.0074391 -0.48838723 -1.2731832
6.0222797 -0.45980167 -1.2758338
6.0090551 -0.42908761 -1.2725699
6.008945 -0.39939678 -1.2721153
6.0079527 -0.36967212 -1.2715051
6.0083876 -0.340056 -1.271228
6.0087624 -0.310449 -1.270969
6.008028 -0.2808015 -1.2705063
6.0083733 -0.25121996 -1.2703027
6.0086594 -0.22164503 -1.2701175
6.0088882 -0.19207616 -1.269951
6.0084453 -0.16249618 -1.2696731
6.0086455 -0.13294265 -1.269562
6.0087881 -0.10339259 -1.2694694
6.0088725 -0.073845424 -1.2693952
6.0087247 -0.044299278 -1.2693026
6.0087824 -0.01475723 -1.2692841
6.0087819 0.014784526 -1.269284
6.0087247 0.044326577 -1.2693026
6.0088696 0.073872693 -1.2693946
6.0087848 0.10341985 -1.2694688
6.0109878 0.13302182 -1.2700571
9.8497829 0.26642853 -2.0814047
7.5158358 0.24028045 -1.5884377
6.7822323 0.25021115 -1.4336365
6.6932049 0.27988437 -1.4150916
6.6928201 0.31283757 -1.4153184
6.6936378 0.3458643 -1.4158338
6.6932206 0.37884596 -1.4161223
6.6927376 0.41183779 -1.4164314
6.6938434 0.44495046 -1.4171112
6.6933246 0.47797969 -1.4174819
6.6927404 0.51102203 -1.417873
6.6920886 0.54407787 -1.4182845
6.6955862 0.57751167 -1.4196104
6.6927538 0.61043084 -1.4196289
6.6919961 0.64355129 -1.4201221
6.6911697 0.67668867 -1.4206358
6.6928859 0.71012062 -1.4217241
6.6920176 0.74331725 -1.4222988
6.6910791 0.77653354 -1.4228936
6.6900716 0.80977017 -1.4235088
6.6920733 0.84341568 -1.4247998
6.6910181 0.87672198 -1.4254756
6.6898913 0.91005117 -1.4261714
6.6921425 0.94389027 -1.4276235
6.6909637 0.9772976 -1.4283798
6.6897116 1.01073 -1.4291558
6.69206 1.0447621 -1.4307377
7.3933387 1.1915091 -1.5819018
7.1386194 1.1864954 -1.5286309
6.9173746 1.1846998 -1.482484
6.6160884 1.1666101 -1.4191264
6.5647206 1.1908602 -1.4093471
6.3395071 1.1822278 -1.3622284
6.086122 1.1659665 -1.3089973
6.023005 1.1846021 -1.296659
5.9892201 1.2085717 -1.2906492
5.7553673 1.1908598 -1.2415017
5.5259366 1.1717476 -1.193239
5.4659066 1.187129 -1.1815224
5.4358335 1.208613 -1.1762921
5.1881695 1.1803447 -1.1239407
5.1599779 1.2006427 -1.1190988
4.9742002 1.1832242 -1.0800557
4.8925128 1.1892376 -1.0635754
4.8662915 1.2082329 -1.0591539
4.6649232 1.1826143 -1.016579
4.608418 1.1924329 -1.0055308
4.584023 1.2101974 -1.0014942
4.3947849 1.1833808 -0.96140987
4.3358426 1.1904023 -0.94978428
4.3131704 1.2070125 -0.94610637
4.1513438 1.1837651 -0.91187489
4.0727758 1.1830435 -0.8958835
4.0517311 1.1985625 -0.89253986
4.0052056 1.2062453 -0.88358659
3.835078 1.1756037 -0.84731966
3.7999384 1.1853006 -0.84083331
3.7671609 1.1954309 -0.83487087
3.74806 1.2096841 -0.83194572
3.5635853 1.1695211 -0.79226518
3.5297301 1.1776642 -0.78601611
3.5119967 1.1909679 -0.78336167
3.4827788 1.2001836 -0.77815121
3.4654119 1.2132922 -0.77559441
3.2922735 1.1708755 -0.73812366
3.2547724 1.1755961 -0.73100299
3.2362113 1.1869105 -0.72813606
3.2101655 1.1952959 -0.72358936
3.1943676 1.2073288 -0.72135764
3.1501899 1.2083648 -0.71271431
3.0262027 1.1779048 -0.68596476
2.9720798 1.1736964 -0.67499626
2.9576075 1.1848227 -0.6730243
2.934761 1.1924475 -0.66915143
2.9205406 1.2034323 -0.66724998
2.9063826 1.2143476 -0.66537136
2.8593664 1.2112494 -0.65596306
2.7471056 1.1796577 -0.63153243
2.6994228 1.1749341 -0.62189102
2.6853409 1.1845421 -0.61998105
2.6654263 1.1914459 -0.61672819
2.652647 1.2014155 -0.6151306
2.6332037 1.2082459 -0.61199194
2.616272 1.2160829 -0.60943896
2.5742934 1.2119969 -0.6010412
2.458415 1.1722405 -0.57532477
2.4380467 1.1772748 -0.57190573
2.4096937 1.1782281 -0.56660682
2.398247 1.1872764 -0.56528097
2.3813539 1.193526 -0.56267548
2.3700535 1.2024777 -0.56139547
2.3535185 1.2086744 -0.55887973
2.3249433 1.2084812 -0.55349827
2.3068933 1.213542 -0.55061483
2.2066393 1.1746902 -0.52805805
2.1770694 1.1727217 -0.52235526
2.1468732 1.1701099 -0.51648426
2.1337607 1.1766064 -0.51471514
2.1313291 1.1889676 -0.51553243
2.1337183 1.2040932 -0.51753598
2.0460515 1.1679211 -0.49765903
2.029726 1.17187 -0.49508354
2.0033596 1.1698173 -0.49004927
1.9776694 1.167892 -0.48516378
1.9621793 1.1717936 -0.48277122
1.9601339 1.1836845 -0.48369399
1.9607844 1.1972723 -0.48530123
1.955712 1.2074147 -0.4855091
1.9057486 1.1895486 -0.47455174
1.9062856 1.2029476 -0.47615242
9.530858 6.0801005 -2.3880575
9.5332117 6.1477537 -2.3961916
9.519105 6.2051306 -2.400285
9.5210562 6.2733173 -2.4085248
9.5228415 6.3418555 -2.4168346
9.385169 6.3169966 -2.3897474
9.3865366 6.3851953 -2.3980603
9.3713427 6.4424801 -2.4022415
9.372261 6.5111966 -2.4106538
9.2380066 6.485497 -2.3842945
9.2384777 6.5538688 -2.3927035
9.2387419 6.6225772 -2.4011757
9.2387943 6.6916199 -2.4097106
9.1075563 6.6650763 -2.3839989
9.1071272 6.7337637 -2.3925233
9.1064663 6.8027768 -2.4011073
9.1055689 6.8721132 -2.4097502
8.97715 6.844727 -2.3846414
8.9757404 6.9136982 -2.3932674
8.974081 6.982985 -2.4019499
8.9721622 7.0525842 -2.4106877
8.8463783 7.0243502 -2.3861415
8.8439198 7.0935721 -2.3948567
8.8411903 7.1630969 -2.403625
8.8381824 7.232923 -2.4124458
8.7148685 7.2038383 -2.3884251
8.711297 7.2732735 -2.3972175
8.7074337 7.3429999 -2.4060597
8.6025763 7.3272462 -2.3870106
8.5981541 7.3967276 -2.3958454
8.5934267 7.4664893 -2.4047277
8.5883875 7.5365291 -2.4136574
8.4696426 7.5063529 -2.3906281
8.4797459 7.5900693 -2.4039836
8.4737921 7.6601114 -2.4129431
8.3571682 7.6296825 -2.3903866
8.3661757 7.7136607 -2.4037814
8.3592739 7.783679 -2.4127645
8.2446537 7.7529788 -2.3906546
8.2525206 7.8371825 -2.404079
8.2446394 7.9071512 -2.4130788
8.131917 7.8761616 -2.3913918
8.1385975 7.9605527 -2.4048367
8.027956 7.9299355 -2.383635
8.0337915 8.0141163 -2.3970373
7.9794927 8.0386066 -2.3925996
7.9955521 8.1343842 -2.4093773
7.9257722 8.1430893 -2.4003849
7.8415666 8.1362267 -2.3869686
7.8722162 8.2488098 -2.4086142
7.787818 8.2411184 -2.395159
7.7183585 8.248477 -2.38624
7.7487159 8.362956 -2.4083083
7.664536 8.3541136 -2.3948812
7.5950475 8.3605156 -2.3859835
7.6251349 8.4770021 -2.408499
7.5552249 8.4827919 -2.3995614
7.4717155 8.4725332 -2.3862395
7.5015512 8.5911427 -2.4092283
7.4316478 8.5960236 -2.4003222
7.3620253 8.6005983 -2.3914635
7.3780479 8.7055922 -2.4105422
7.3081746 8.7096014 -2.4016747
7.2385926 8.7133179 -2.3928571
7.169302 8.7167454 -2.3840897
7.1980457 8.8399229 -2.4080718
7.1283684 8.8427916 -2.399277
7.0589933 8.8453836 -2.3905351
7.0875726 8.9713106 -2.4151213
7.0178161 8.9733601 -2.4063554
6.9483714 8.9751472 -2.397645
6.879241 8.9766817 -2.3889906
6.9069729 9.1052408 -2.4141378
6.8374734 9.1062584 -2.4054656
6.7682967 9.1070337 -2.3968515
6.6994448 9.1075783 -2.3882973
6.7263336 9.2389526 -2.4140465
6.657124 9.2390108 -2.4054806
6.5882473 9.2388515 -2.3969769
6.5197053 9.2384815 -2.388536
6.5457506 9.3728676 -2.4149308
6.47686 9.3720446 -2.4064853
6.4194875 9.3873701 -2.4022872
6.3511143 9.3860931 -2.3939409
6.2830873 9.3846359 -2.3856616
6.3076043 9.522193 -2.4127176
6.2392411 9.5203238 -2.4044425
6.1712289 9.5182924 -2.3962376
6.1139412 9.5322752 -2.3921618
6.0464635 9.5298481 -2.3840635
6.0694304 9.6708231 -2.4118366
6.0016265 9.6680307 -2.4037526
5.9440794 9.6812258 -2.3997383
5.8768215 9.6780729 -2.3917661
5.8099241 9.6748018 -2.3838696
5.8408928 9.8356123 -2.4163883
5.7735023 9.8319149 -2.4084771
5.7064762 9.8281155 -2.4006445
5.6398153 9.8242216 -2.3928919
5.5824599 9.8359947 -2.3890455
5.516356 9.8318138 -2.3814137
5.5354052 9.9804344 -2.4107912
5.4776053 9.9917212 -2.4069831
5.4113827 9.9870958 -2.399431
5.3538489 9.9979534 -2.3956866
5.2881899 9.9930878 -2.3882618
5.222898 9.9881802 -2.3809233
5.2475252 10.15657 -2.4148841
5.181747 10.15133 -2.407552
5.1240335 10.161329 -2.4039195
5.0588226 10.155899 -2.3967218
4.9939795 10.150461 -2.3896155
4.9367347 10.159907 -2.3860965
4.9508128 10.317617 -2.4173894
4.8929124 10.326817 -2.4138794
4.8281431 10.32095 -2.4069307
4.7705178 10.329783 -2.403492
4.7063112 10.323799 -2.3966868
4.6489606 10.332281 -2.3933208
4.5853124 10.3262 -2.3866613
4.5282331 10.33434 -2.3833687
4.5381684 10.497109 -2.4157324
4.4804215 10.505029 -2.4124563
4.4168324 10.498672 -2.4059806
4.3593583 10.506269 -2.402781
4.2963181 10.499875 -2.3964589
4.2391148 10.507164 -2.3933368
4.1766176 10.500753 -2.3871706
4.1196818 10.507746 -2.3841269
4.1252432 10.676093 -2.4176927
4.0676212 10.682892 -2.4146743
4.0100765 10.689502 -2.4116828
3.9477906 10.682883 -2.4057817
3.890511 10.689221 -2.4028723
3.8287482 10.682654 -2.3971357
3.7717288 10.688729 -2.3943088
3.7104809 10.682234 -2.3887386
3.6537175 10.68806 -2.3859956
3.5970283 10.693712 -2.3832805
3.5963531 10.868239 -2.4182072
3.5389524 10.873731 -2.4155285
3.4778447 10.867233 -2.4102578
3.4206929 10.872498 -2.407666
3.3636138 10.877593 -2.4051034
3.3031626 10.871184 -2.4000666
3.2463255 10.87607 -2.3975928
3.1895599 10.880795 -2.3951483
3.1297426 10.874509 -2.3903487
3.0732105 10.879035 -2.3879933
3.0138452 10.872935 -2.3833733
2.9575396 10.877275 -2.3811085
2.9513245 11.069077 -2.4198892
2.8915288 11.063023 -2.4154289
2.8345389 11.067091 -2.4132452
2.7776144 11.071009 -2.4110925
2.7183952 11.065171 -2.4068816
2.6616831 11.068927 -2.4048231
2.6050336 11.072537 -2.4027958
2.5463624 11.066945 -2.3988366
2.4899149 11.070407 -2.3969045
2.433527 11.073728 -2.395004
2.3753743 11.068409 -2.391299
2.3191772 11.071592 -2.3894947
2.2630367 11.074639 -2.387722
2.2069523 11.077552 -2.3859818
2.1494114 11.072544 -2.3825982
2.0935035 11.075335 -2.380955
2.0734255 11.272504 -2.4211214
2.0153265 11.267724 -2.4179375
1.9586554 11.270303 -2.4163952
1.9020338 11.272754 -2.4148865
1.8443582 11.268336 -2.4119687
1.7878917 11.270684 -2.4105604
1.7314705 11.272902 -2.4091852
1.6750941 11.274999 -2.4078441
1.6179048 11.271001 -2.4052622
1.5616668 11.273004 -2.4040222
1.5054693 11.274883 -2.4028158
1.4486246 11.271298 -2.4005048
1.3925518 11.273094 -2.3994002
1.3365152 11.274772 -2.39833
1.2805142 11.276332 -2.3972936
1.2240525 11.273217 -2.3953228
1.1681584 11.274701 -2.3943889
1.1122953 11.276071 -2.3934894
1.056095 11.273407 -2.391793
1.0003241 11.274706 -2.3909962
0.9445796 11.275889 -2.3902338
0.88886058 11.276962 -2.3895059
0.83293599 11.274812 -2.3881536
0.77729112 11.275822 -2.3875291
0.72166669 11.276719 -2.386939
0.66606206 11.277506 -2.3863838
0.6103515 11.275886 -2.3853769
0.5548023 11.276616 -2.3849256
0.49926776 11.277234 -2.3845084
0.4437471 11.277744 -2.3841262
0.38818821 11.276668 -2.3834662
0.33270401 11.277123 -2.383188
0.27722871 11.277472 -2.3829448
0.22176129 11.277712 -2.3827362
0.16629091 11.277184 -2.3824234
0.11084078 11.27737 -2.3823187
0.055393659 11.277452 -2.3822494
-5.1579147e-05 11.277423 -2.3822148
-5.3173505e-07 -12.16468 -2.4097261
0.059806906 -12.164713 -2.4097619
0.11961641 -12.164629 -2.4098327
0.17942917 -12.16443 -2.4099388
0.23926394 -12.165009 -2.4102573
0.29909554 -12.164756 -2.4104695
0.35893571 -12.164388 -2.410717
0.41878569 -12.163905 -2.4110003
0.47871679 -12.16509 -2.4116724
0.53860641 -12.16455 -2.4120612
0.59851104 -12.163895 -2.4124856
0.65843195 -12.163122 -2.412945
0.71852779 -12.164901 -2.4139698
0.77850902 -12.164068 -2.414535
0.83851153 -12.163117 -2.4151354
0.89853698 -12.162051 -2.4157715
0.9588657 -12.164412 -2.4171479
1.0189716 -12.163279 -2.4178889
1.0791051 -12.162024 -2.4186647
1.1392673 -12.160646 -2.4194756
1.199896 -12.163572 -2.4212022
1.260159 -12.162125 -2.4221179
1.2957741 -11.93325 -2.3777769
1.3555465 -11.936591 -2.3797419
1.4148296 -11.934965 -2.3807755
1.4741503 -11.933213 -2.3818431
1.5335101 -11.931337 -2.3829446
1.5936904 -11.935184 -2.3852489
1.653183 -11.933221 -2.3864522
1.7127186 -11.931129 -2.3876889
1.7732666 -11.935422 -2.3902638
1.8329496 -11.933232 -2.3916013
1.8926806 -11.930913 -2.3929725
1.9524604 -11.928462 -2.394377
2.0135257 -11.933201 -2.3972867
2.0734706 -11.930641 -2.3987913
2.1334682 -11.927944 -2.4003291
2.1949847 -11.933077 -2.4035044
2.2551613 -11.930261 -2.4051414
2.3153949 -11.927307 -2.4068117
2.377398 -11.932803 -2.4102504
2.4378238 -11.929719 -2.412019
2.4983099 -11.92649 -2.4138203
2.5588579 -11.923116 -2.4156544
2.6215258 -11.928956 -2.4194198
2.6822808 -11.925433 -2.4213507
2.6928046 -11.703167 -2.3788807
2.7548695 -11.709167 -2.3828249
2.8147864 -11.705393 -2.3848443
2.8747709 -11.701467 -2.3868949
2.9374185 -11.707731 -2.3910897
2.9976289 -11.703634 -2.393234
3.0579093 -11.699379 -2.3954091
3.1211696 -11.705875 -2.3998523
3.1816869 -11.701437 -2.4021201
3.2422767 -11.696835 -2.4044187
3.3061786 -11.70353 -2.4091072
3.3670149 -11.698729 -2.4114971
3.431407 -11.70563 -2.416368
3.4924972 -11.700618 -2.4188488
3.4897265 -11.485007 -2.3777943
3.5536242 -11.491884 -2.3828061
3.6139436 -11.486553 -2.3853562
3.6743402 -11.481045 -2.3879349
3.7389359 -11.48802 -2.3931799
3.7995985 -11.482275 -2.3958457
3.8647227 -11.489374 -2.401263
3.9256556 -11.483379 -2.4040146
3.98667 -11.477197 -2.4067945
4.0525308 -11.484331 -2.4124393
4.1138229 -11.477881 -2.4153042
4.1802411 -11.485096 -2.4211178
4.1668882 -11.275615 -2.3812478
4.2326756 -11.28272 -2.3871143
4.2934365 -11.275803 -2.3900878
4.3542805 -11.268686 -2.3930883
4.420836 -11.275726 -2.3991699
4.481966 -11.268306 -2.4022508
4.5490985 -11.275351 -2.4084914
4.6105189 -11.267612 -2.4116511
4.6782384 -11.274642 -2.4180493
4.657742 -11.071165 -2.3792927
4.7248535 -11.077997 -2.3857243
4.7857776 -11.069709 -2.3889778
4.8534784 -11.07648 -2.3955598
4.9146957 -11.067842 -2.3988883
4.9829926 -11.074532 -2.4056194
5.0445042 -11.065527 -2.4090216
5.1134043 -11.072117 -2.4159
5.1752119 -11.062736 -2.4193757
5.1553521 -10.880585 -2.3850541
5.2163877 -10.870956 -2.3885365
5.2852931 -10.877124 -2.3955719
5.3466225 -10.867099 -2.3991244
5.4161329 -10.873098 -2.4062986
5.4860396 -10.87909 -2.4135644
5.5478759 -10.868475 -2.4172316
5.5243263 -10.692199 -2.3840382
5.5854049 -10.681314 -2.3877051
5.6553235 -10.686742 -2.3951049
5.7256365 -10.692125 -2.4025915
5.7872148 -10.680605 -2.4063673
5.8581352 -10.685733 -2.4139824
5.9200001 -10.673753 -2.4178216
5.8929267 -10.502865 -2.3856461
5.9636445 -10.507511 -2.3933325
6.0249686 -10.495026 -2.3972065
6.0962853 -10.499364 -2.4050145
6.1679959 -10.503605 -2.4129031
6.240099 -10.507736 -2.4208708
6.2001443 -10.324499 -2.385649
6.2716441 -10.32817 -2.3935931
6.3435302 -10.331714 -2.4016132
6.4050002 -10.317722 -2.4056516
6.4774756 -10.320885 -2.413785
6.4461088 -10.159628 -2.3834543
6.5181627 -10.162398 -2.3915935
6.5792952 -10.147579 -2.3956895
6.6519213 -10.149924 -2.4039347
6.724925 -10.152095 -2.4122505
6.6918988 -9.9951534 -2.3827481
6.7644715 -9.9968824 -2.3910596
6.8374152 -9.9984188 -2.3994386
6.8985839 -9.9821844 -2.4036527
6.9720826 -9.9832363 -2.4121308
6.9374275 -9.8303032 -2.3833919
7.0104847 -9.8308706 -2.3918569
7.0839 -9.831213 -2.4003849
7.1576738 -9.8313265 -2.4089756
7.2318025 -9.8312006 -2.4176276
7.195508 -9.6817732 -2.3895521
7.2691784 -9.681118 -2.3981822
7.3431954 -9.6802073 -2.4068706
7.4175563 -9.6790352 -2.4156172
7.3804312 -9.5331459 -2.3882346
7.4543252 -9.531415 -2.3969531
7.5285516 -9.5294046 -2.4057267
7.6031113 -9.5271111 -2.4145553
7.5651498 -9.3845358 -2.3878186
7.6392312 -9.3816576 -2.3966136
7.7136326 -9.378479 -2.4054604
7.788352 -9.3749943 -2.4143586
7.7495537 -9.2355347 -2.3882265
7.823781 -9.2314415 -2.3970859
7.9129996 -9.2441826 -2.4104671
7.8740911 -9.1077042 -2.3849456
7.9482908 -9.1026878 -2.393836
8.022788 -9.0973377 -2.4027729
8.1127157 -9.1086435 -2.4162645
8.072875 -8.9746819 -2.3912277
8.1473083 -8.9683552 -2.4001858
8.222024 -8.9616776 -2.4091878
8.1974449 -8.8471756 -2.3892117
8.2717915 -8.8398409 -2.3981848
8.3464069 -8.8321409 -2.4071989
8.3219166 -8.719944 -2.3877423
8.3961506 -8.7115698 -2.3967237
8.4865742 -8.7191887 -2.4102695
8.4462013 -8.5927811 -2.3867764
8.5363255 -8.5994873 -2.4002674
8.5944939 -8.5733681 -2.4047425
8.5879889 -8.4830523 -2.3912237
8.7145376 -8.5238161 -2.4147623
8.7071152 -8.4331932 -2.4011877
8.7156763 -8.3588314 -2.3921864
8.8446102 -8.3993979 -2.4162114
8.8359032 -8.3088932 -2.4026442
8.843421 -8.2344141 -2.3936508
8.9748707 -8.274806 -2.4181895
8.9649229 -8.1844587 -2.4046383
8.9714251 -8.1098862 -2.3956585
8.9775753 -8.0355949 -2.3867223
9.0943956 -8.0599766 -2.4072156
9.0999155 -7.9853349 -2.3982558
9.1050978 -7.9109874 -2.3893423
9.2417192 -7.9502931 -2.4149079
9.2462711 -7.8754411 -2.4059505
9.2333813 -7.7864609 -2.3926065
9.2373152 -7.712388 -2.3837719
9.3766232 -7.7507825 -2.4098585
9.3799543 -7.6762238 -2.400986
9.3829823 -7.601984 -2.3921654
9.3857155 -7.5280671 -2.3833973
9.5281382 -7.5656223 -2.4100893
9.5302877 -7.49123 -2.401288
9.5321579 -7.417171 -2.3925421
9.5337534 -7.3434467 -2.383852
9.679492 -7.3801661 -2.4111912
9.6805334 -7.3059793 -2.4024737
9.6813145 -7.2321362 -2.3938146
9.6818457 -7.1586404 -2.3852146
9.8311253 -7.1945286 -2.4132478
9.831131 -7.1205783 -2.4046266
9.8309031 -7.0469861 -2.3960674
9.8304472 -6.9737506 -2.3875711
9.9835072 -7.0088038 -2.4163473
9.9825602 -6.935123 -2.4078367
9.9814053 -6.8618107 -2.3993917
9.9974995 -6.8007369 -2.3951941
9.9958658 -6.7279801 -2.3868489
10.152931 -6.7614059 -2.4163868
10.15085 -6.6882148 -2.4080365
10.148591 -6.6154017 -2.399756
10.16354 -6.554173 -2.3956423
10.160851 -6.4819322 -2.3874679
1.9062983 -1.2029436 -0.44652274
1.905728 -1.1895238 -0.44501391
1.9556735 -1.2073787 -0.45528525
1.9607116 -1.1972156 -0.45508233
1.9600269 -1.1836077 -0.45356727
1.9633706 -1.172493 -0.45300162
1.9775885 -1.1678321 -0.45495182
2.0032425 -1.1697367 -0.45952505
2.0295725 -1.1717691 -0.46423778
2.0458791 -1.1678103 -0.46664876
2.1335015 -1.203958 -0.48527873
2.1325495 -1.1896358 -0.48372599
2.1335764 -1.1764923 -0.4826411
2.1466515 -1.1699762 -0.48429176
2.1768076 -1.172568 -0.48978859
2.2063553 -1.1745261 -0.49513161
2.3065574 -1.2133517 -0.5162732
2.3262143 -1.2091283 -0.5193361
2.3547754 -1.2093064 -0.52437884
2.36971 -1.2022898 -0.52638191
2.3809896 -1.1933298 -0.52757776
2.3978403 -1.1870614 -0.53001195
2.4092653 -1.1780051 -0.53125072
2.4375734 -1.1770326 -0.5362103
2.4596713 -1.1728257 -0.53979635
2.5755775 -1.2125871 -0.56391782
2.6157737 -1.2158369 -0.57140303
2.6326814 -1.2079916 -0.5737921
2.6520791 -1.2011437 -0.57672584
2.6648345 -1.1911668 -0.57821906
2.6847024 -1.1842458 -0.58125973
2.7007158 -1.1754822 -0.58346844
2.7483895 -1.1801944 -0.5925073
2.8606865 -1.2117932 -0.61542481
2.9056909 -1.214043 -0.62381506
2.9198229 -1.2031209 -0.62557161
2.9340186 -1.1921302 -0.62734962
2.9568152 -1.1844896 -0.63097119
2.971261 -1.1733575 -0.63281518
3.0253246 -1.1775471 -0.64308882
3.1515777 -1.2088807 -0.66865474
3.1957405 -1.207831 -0.6767565
3.2115283 -1.1957867 -0.67884666
3.2375512 -1.1873851 -0.68310511
3.2538202 -1.1752354 -0.68531036
3.2912874 -1.170508 -0.6919812
3.4643269 -1.2128944 -0.7270996
3.4816649 -1.199782 -0.72949171
3.5108268 -1.1905533 -0.73436648
3.5285306 -1.1772462 -0.73685008
3.5650263 -1.169976 -0.74326116
3.7495384 -1.2101424 -0.78047973
3.7686293 -1.1958781 -0.78322023
3.8013835 -1.1857325 -0.78880632
3.8365188 -1.1760263 -0.79488772
4.0038362 -1.2058129 -0.82831579
4.0503297 -1.1981277 -0.83670563
4.0713429 -1.1826071 -0.83983523
4.1498222 -1.1833107 -0.85481364
4.3115416 -1.2065356 -0.88689321
4.3341804 -1.1899247 -0.89033592
4.3930507 -1.1828922 -0.9012236
4.5856953 -1.2106165 -0.93951166
4.6100793 -1.1928403 -0.94329458
4.6665668 -1.1830084 -0.95365125
4.8679872 -1.2086303 -0.99358678
4.8941979 -1.1896237 -0.99773079
4.9758768 -1.1835991 -1.0131834
5.1616979 -1.2010181 -1.0498049
5.1898789 -1.1807088 -1.0543432
5.433629 -1.208097 -1.1026419
5.4636984 -1.1866235 -1.1075467
5.5236511 -1.1712368 -1.1185188
5.7529263 -1.1903275 -1.1637472
5.9866529 -1.2080253 -1.2098111
6.0203977 -1.1840611 -1.2154394
6.0834618 -1.165428 -1.2269995
6.3366833 -1.1816716 -1.2768856
6.566875 -1.1912202 -1.3220748
6.6182394 -1.1669585 -1.3312446
5.9989429 -1.0273771 -1.2056439
6.0002365 -0.99725908 -1.2049038
6.0014625 -0.96716666 -1.2041807
5.9991817 -0.93656236 -1.2027847
6.0003562 -0.90654939 -1.202112
6.0014648 -0.87655985 -1.2014561
6.0025077 -0.8465932 -1.2008171
6.0004601 -0.81623739 -1.1995902
6.0014572 -0.78634131 -1.1990021
6.0023904 -0.75646579 -1.1984311
6.0005698 -0.72628474 -1.1973403
6.0014615 -0.69647229 -1.1968205
6.0055947 -0.66704512 -1.1969762
6.003264 -0.63692355 -1.1958731
5.9970512 -0.60646379 -1.1940271
5.997777 -0.57676262 -1.1935927
5.9984436 -0.54707694 -1.1931756
5.9990492 -0.51740611 -1.1927757
5.997757 -0.48760012 -1.1920277
5.9983306 -0.45797312 -1.1916797
5.9988437 -0.42835847 -1.1913489
5.9992981 -0.39875558 -1.1910354
5.9982905 -0.36907762 -1.1904607
5.9987149 -0.33950856 -1.1901993
5.9990811 -0.30994883 -1.1899552
6.0010405 -0.2804749 -1.190056
6.0042558 -0.25104782 -1.1904345
5.9989538 -0.22128703 -1.1891532
5.9991775 -0.19176574 -1.1889962
5.9987268 -0.16223335 -1.1887344
5.9989233 -0.13272755 -1.1886297
5.9990635 -0.10322526 -1.1885426
5.999146 -0.073725894 -1.1884727
5.9989958 -0.044227552 -1.1883855
5.999052 -0.014733332 -1.188368
5.9990516 0.014760586 -1.188368
5.9989948 0.044254795 -1.1883854
5.999145 0.073753141 -1.1884726
5.9990621 0.1032525 -1.1885424
6.0010862 0.1328027 -1.1890585
9.7538252 0.26383296 -1.9328618
7.5277352 0.24066086 -1.4919462
7.2228236 0.26646551 -1.4317572
7.2195868 0.30189568 -1.4313926
7.2191796 0.33744082 -1.4316233
7.2200789 0.37306583 -1.4321481
7.2196374 0.4086419 -1.4324417
7.2191267 0.44422916 -1.4327563
7.2203398 0.47994751 -1.4334481
7.2197919 0.51557547 -1.4338254
7.2201757 0.55129415 -1.4344224
7.2422762 0.58880901 -1.4393709
7.2204323 0.62278098 -1.4356207
7.2197027 0.65849262 -1.4361019
7.2189012 0.69422233 -1.436604
7.2180266 0.72997051 -1.4371268
7.2199111 0.76603842 -1.4382344
7.0840106 0.78685796 -1.4119161
7.0830312 0.8220216 -1.4125094
7.0819793 0.85720682 -1.4131229
7.0841274 0.89282703 -1.4144104
7.083025 0.92808658 -1.4150842
7.0818481 0.96337056 -1.4157783
7.0842652 0.99919701 -1.4172264
8.0303793 1.1729357 -1.6076335
7.9555311 1.2019792 -1.5938128
7.6924767 1.2009468 -1.5422767
7.3956532 1.1918821 -1.4839231
7.1408734 1.1868701 -1.4339556
6.9195776 1.1850771 -1.3906705
6.6182332 1.1669884 -1.3312443
6.5668693 1.1912498 -1.3220747
6.3366776 1.1817002 -1.2768855
6.0834556 1.1654556 -1.2269994
6.0203919 1.1840882 -1.2154393
5.9866476 1.2080526 -1.2098111
5.7529206 1.1903535 -1.1637471
5.5236459 1.1712618 -1.1185188
5.4636602 1.1866411 -1.1075399
5.4336224 1.2081215 -1.1026418
5.1898727 1.1807321 -1.054343
5.1616921 1.2010416 -1.0498049
4.9758701 1.1836214 -1.013183
4.8941927 1.189646 -0.99773079
4.8679819 1.2086526 -0.99358684
4.6665616 1.1830297 -0.95365125
4.610074 1.1928614 -0.94329458
4.5856895 1.2106373 -0.93951166
4.3930454 1.1829125 -0.90122366
4.3341751 1.1899445 -0.89033592
4.3115363 1.2065551 -0.88689321
4.1497955 1.1833235 -0.85480922
4.0713034 1.1826159 -0.83982831
4.050292 1.1981367 -0.83669901
4.0038309 1.2058312 -0.82831579
3.836513 1.1760436 -0.7948876
3.8013783 1.1857498 -0.78880632
3.7686236 1.1958951 -0.78322011
3.7495327 1.2101594 -0.78047961
3.5650203 1.1699921 -0.74326104
3.5285246 1.1772621 -0.73684996
3.5108209 1.1905692 -0.73436642
3.4816589 1.1997977 -0.72949159
3.4643211 1.2129103 -0.72709954
3.2912817 1.1705228 -0.69198114
3.2538145 1.1752501 -0.68531024
3.2375455 1.1873997 -0.68310505
3.2115223 1.1958011 -0.6788466
3.1957347 1.2078456 -0.6767565
3.151572 1.208895 -0.66865474
3.0253191 1.1775609 -0.64308882
2.9712553 1.1733708 -0.63281512
2.956809 1.1845028 -0.63097107
2.9340127 1.1921434 -0.62734956
2.919817 1.2031342 -0.62557149
2.9056847 1.214056 -0.62381494
2.8606806 1.2118061 -0.61542469
2.7483838 1.1802067 -0.59250718
2.7007101 1.1754943 -0.58346832
2.6846969 1.184258 -0.58125967
2.6648288 1.1911788 -0.57821906
2.6520734 1.2011555 -0.57672572
2.6326759 1.2080036 -0.5737921
2.615768 1.2158487 -0.57140297
2.5755718 1.2125987 -0.56391776
2.4596655 1.1728368 -0.53979629
2.4375677 1.1770434 -0.53621024
